         108   1.52741533E-43  0.100000001    
     0.23153129    -0.35757828     0.37864825       -1.59566808    -1.16086173    -0.99161977
    -0.14104877    -0.27327478    -0.46250835        0.06027031    -0.28128177     2.11631131
    -0.24463739    -0.11019057    -0.35788077        0.47376269    -0.02810895     0.63982618
    -0.05612746     0.34970605    -0.28748047        1.20571089    -0.28673080    -0.88524538
    -0.08348395    -0.19705096     0.42881325        1.25620413    -1.88962102    -1.28020382
    -0.27905804    -0.29988107    -0.14023706        0.47813717    -0.23523211     1.25109053
    -0.02886896    -0.14091246    -0.39603293       -0.20519638     0.33767056     1.10030103
     0.27144346    -0.08784183     0.38024154        0.56578624     0.68568468     0.21875358
     0.37440589    -0.30419409     0.35266283        1.23748279    -3.21691537    -0.13133875
     0.02631592     0.17233057     0.09806094       -0.02394724    -0.11728752    -0.43001497
    -0.49576703    -0.07881499    -0.15829521       -1.06590438     0.14044416     0.24824977
     0.18476464     0.35655862     0.06001568        0.11252087    -0.98818815     1.14126921
     0.45165214     0.14334510    -0.10646392        0.38516653    -1.88966131    -0.34863579
    -0.37710568    -0.45114443     0.14976938       -1.04889417     0.04787449     0.15448952
    -0.35071027     0.31330144     0.49863645        1.23805022     0.64961529    -0.32800481
     0.44768763    -0.36527854    -0.45648310        1.32993782     0.57861990     0.01695409
     0.11401629     0.14542137     0.03081468       -1.31818247     0.34519857     0.46741337
     0.17062852    -0.16308990    -0.09841817        0.95836926     0.97037399     0.06314158
    -0.40258765     0.06951353     0.38233051       -1.27960360     0.27524298     0.10031861
    -0.43926400    -0.10501107     0.10094886        0.34598106     1.43100584     1.18173921
    -0.22241941    -0.47621915    -0.41404316       -0.14449787    -0.77063495    -2.30230808
     0.43945175     0.02820367     0.07293222       -0.63357711     1.71844792    -0.91334230
     0.44879246     0.28232446    -0.18330202        0.36634362    -0.21765265    -0.85076833
    -0.36587280     0.06930048     0.25754166       -0.38150597    -1.13714433    -0.64143634
     0.02678340    -0.17967935     0.26414675        0.06505752     0.97022998     1.87437391
    -0.25203976    -0.49574998    -0.07767307       -0.43102384    -1.84999943     0.41955817
     0.05035287    -0.27995986    -0.19166489        0.56276882     0.57073927    -0.43327856
     0.21806045     0.26900139    -0.26800188        0.79897290     1.44765544    -0.33908254
    -0.41486976    -0.42827600     0.35062015       -0.44926870     0.41289049    -1.72041047
    -0.38747695     0.14330173    -0.21148354        0.32126045     0.47223133     0.65724152
    -0.25925854     0.19061173    -0.36906710       -0.91787505     1.26724601    -1.31806803
    -0.04177868     0.25761232    -0.34934786        0.48335758    -0.16465759    -0.90490288
    -0.30216348    -0.25718328     0.22963227       -1.87935090    -2.04303050     0.38295203
     0.32441291    -0.02817020    -0.23475626        1.08130527    -0.18553698     1.16809273
     0.37023577     0.20565027    -0.48607302       -0.34126800    -0.78978932    -0.25815934
     0.39227238    -0.49937469    -0.38719648        1.33510792    -0.30516946    -0.84724283
     0.22626220     0.23893203    -0.38358650       -1.63322461     1.30995059    -0.36886734
    -0.05704590     0.19753283    -0.15896590        0.64586008     2.49222994    -0.15620041
     0.42005309     0.29204372     0.21271747       -1.30964518    -1.67268384     0.93591571
    -0.06697638     0.14025623    -0.02925420        0.54818207    -0.04612836     0.18168640
     0.22076724    -0.01248766    -0.02127727        0.85087514     0.86441898     0.47376409
    -0.08942728    -0.46205053    -0.09384574        0.25320947    -0.35186207     0.17453825
     0.02931884    -0.02091553     0.05750944       -1.45047426    -1.13998306    -1.40174484
    -0.22933495    -0.30578241     0.35136077        0.90218937     0.36706880     1.38138235
     0.16734804     0.41530490    -0.43736550       -0.83637035     0.86794692    -0.80967510
     0.43256822     0.31380194    -0.35735923       -0.31199050     0.32261515     1.56699097
    -0.19479057     0.41130269    -0.00226437       -1.15364218    -1.52379227     1.45375061
     0.42287922    -0.03488162     0.47879922        0.72858214     1.03288531     0.71757150
     0.43526787     0.23630580     0.11913624       -0.07507314    -0.56127274    -1.64304757
    -0.06930603    -0.32984105     0.46504572        0.22606826     0.48346508     1.21154165
    -0.26033387     0.06372976     0.17359030        0.18816268    -0.72145462     0.37560713
    -0.46435016    -0.00590625    -0.07569508        0.68849367    -0.09480119    -0.27476364
    -0.31219056    -0.24394028     0.40792632        1.04200077    -1.23128319    -0.30354035
    -0.25621063    -0.15344185     0.21634087        0.85885108    -0.24194121    -0.51882601
     0.29753292     0.04661730    -0.34294498        1.16460848     0.52053821    -0.03608125
    -0.45584953    -0.12500411    -0.32020321        1.18286788     0.56412411    -1.01200616
    -0.37735248     0.44406387    -0.49958643        0.00697725     1.64624715    -0.14146468
     0.18110199     0.46452996    -0.05169247       -0.55725718     0.27137649    -0.41037476
     0.46480575    -0.21524891     0.21493532        0.87313795    -0.96269351     0.65245867
     0.46591124     0.40938470    -0.41663066        0.16561967    -0.08900738    -0.38747883
     0.36999133    -0.15445098     0.32881668       -1.09957027    -0.01656842     0.07045165
     0.46716538     0.24024875     0.49042344        1.20821738     0.44827998     1.72027361
    -0.06743815    -0.08893394     0.17408295       -0.92685533     1.06987560     1.66659784
    -0.21177444     0.36278346    -0.48038837       -0.39867646    -0.51366639     0.57111669
    -0.15716207    -0.49130577     0.21598732       -2.75812054    -0.79155439    -0.11227059
     0.26498783     0.27223873     0.06114686       -1.73645914     1.16844702     0.36234930
    -0.35744944     0.05274810    -0.17542318       -0.26440015     0.34647620    -0.28754926
    -0.24693073     0.23666011    -0.19044334        0.19923624     0.19938517     1.62545860
    -0.23744285    -0.16940776    -0.02930700        1.29494381     0.17300415     0.18862271
    -0.33141407    -0.11655641     0.39307889        1.67562008    -1.44386899     1.59056795
     0.32502389     0.14260314     0.20855854        2.34536123    -0.17295229    -0.49515927
    -0.42676431     0.16915554    -0.43823981       -0.17780578     0.77661818     2.04523754
    -0.37884727    -0.21558848     0.11094087        1.15087032    -0.70887244     0.17242453
    -0.09845123     0.18708485     0.24928960       -1.71361375    -0.77486593     1.61011982
    -0.41670176    -0.32646948    -0.38175952        1.57221365     1.09909511     0.15498149
     0.27980256    -0.12752831     0.48935980       -1.77050459    -0.83070534    -0.42757273
    -0.39503086     0.49783203    -0.34117311       -1.05979812     1.90592086     0.55280757
    -0.19009452     0.07585956     0.26919416       -1.37264872     0.31916392    -0.85163033
     0.40256059     0.22742599    -0.10196228        0.84442973     1.60298800    -0.77930766
     0.08578333    -0.46916851     0.06247463       -1.23466444    -0.87137735     1.05812156
    -0.14009565    -0.20949550     0.00114452       -1.65339923     0.92619628    -2.61916733
     0.24043044    -0.26061976     0.06603038        0.88823539     0.78142631     1.85717165
     0.20661747     0.49402559     0.41659299       -1.06892502    -0.98497128     0.04125182
    -0.16332988    -0.03212595    -0.03376577       -1.41050804    -2.17291999    -1.31060970
     0.24897836    -0.03980884     0.25892740        1.79550612     0.28285986     0.18889570
    -0.46431738     0.08400529    -0.03487830       -0.73716927     0.99858838    -1.14556527
    -0.49597764     0.08421396     0.17111561       -0.14264643    -0.70102084    -0.33246842
    -0.32602644    -0.37514806     0.36736023       -0.52061647    -0.70331395    -1.38514400
    -0.18506606    -0.47142956    -0.29396862        0.29350898    -0.20439945     1.55103326
    -0.17796101    -0.41161188    -0.09427819        0.43922985    -0.00448823     1.14126408
    -0.10176957    -0.18499625    -0.24307628       -1.09023499    -1.52699316     0.65606236
     0.05166474     0.38445896    -0.06586959        0.03770167     0.20700793    -1.21120930
    -0.10362299    -0.41633728    -0.29827201        0.45708284     0.14605881    -0.37218022
    -0.34331742     0.05538477    -0.42893946        0.87922454    -0.11115283    -0.74915248
     0.12760389     0.00318484    -0.39579612        0.09353352     1.16192973     0.03690565
    -0.16400242    -0.06692809    -0.26515847        0.71344548     0.79060161    -0.13160652
     0.01289811    -0.05188444    -0.28415167       -0.13858676     0.49595487     0.59624410
     0.24549484    -0.15011813     0.15665928        0.42627311     2.34083462     0.82292128
    -0.15875630    -0.37242666    -0.46457934        0.04893881    -0.49305972    -1.89847171
    -0.17356364    -0.41833442     0.43262622        1.31763411    -0.26680255    -0.40834630
     0.01405183    -0.25225022    -0.01848220       -0.74165636     1.13388145    -0.39262933
    -0.35386986    -0.10620663    -0.26637271        2.08139086    -0.92541206     0.92270637
    -0.47920260    -0.19616807    -0.15266532        1.17548442    -0.96347523     0.99353337
     0.35754216     0.05271194    -0.42694467       -0.03526580    -1.22355771    -0.97074461
    -0.37345025    -0.01403742    -0.02454876       -0.03037128    -0.50759095     0.86363733
    -0.43982390     0.06763161    -0.29907173        0.27915835     0.10121888    -1.70639443
    -0.22236663    -0.20402747     0.34278736       -0.49754167     0.42748332    -0.67149425
     0.18884343    -0.04806081    -0.30506784       -0.16982295     1.06152582    -0.51780981
