   108     0.02331     0.80000
  -0.0421019  -0.0190827   0.3994075
  -0.1726311   0.0756457  -0.3415167
   0.1107476  -0.3303810   0.0593861
   0.2871454  -0.1440624   0.0336668
   0.3547618  -0.3293709  -0.2276857
  -0.2618126  -0.1261369  -0.0326463
   0.4614850  -0.0670695  -0.1986471
   0.1105213   0.2082593   0.1950308
   0.2243874   0.4475976   0.1390826
   0.0022341   0.4402250  -0.0896034
  -0.2151640   0.0603974   0.1261457
   0.3979432   0.4436074  -0.2048406
   0.3451470   0.2133032  -0.4545901
   0.1192297  -0.2327151  -0.3045791
   0.0384590   0.1934364   0.4158798
  -0.4453414  -0.0464596  -0.0162322
   0.0590412   0.3518675   0.0704446
   0.1265175   0.2343224  -0.4099607
  -0.0249353  -0.1407617  -0.4464418
  -0.0435309  -0.4111443  -0.3599238
   0.2809075   0.3787154  -0.3827411
   0.1725833  -0.1236083   0.4760325
   0.4856738   0.3077138  -0.3603750
  -0.0890747  -0.0887139  -0.1585902
  -0.0372998  -0.4928388   0.4516449
  -0.3030673  -0.0576112  -0.2656963
   0.2044731  -0.1919027   0.2805629
  -0.0021519   0.1739029   0.0305654
   0.4854668  -0.4336260   0.1753950
  -0.4547008  -0.2483842  -0.1565511
   0.3928073   0.4159590   0.0069283
   0.0380664   0.2461784  -0.1583347
   0.4173195  -0.4256695   0.4538423
   0.1164736   0.4678921  -0.4162542
  -0.2005737   0.3143380   0.0367594
   0.4286500   0.2897238   0.1839294
   0.1982812  -0.4925805  -0.0645581
   0.4487527   0.1944261   0.0049153
  -0.4970070  -0.4867285  -0.3928910
   0.3077050   0.0068191  -0.4461029
   0.0027281  -0.1110429   0.0212923
   0.3338731  -0.2302775   0.4916586
   0.4762061  -0.1953527  -0.3513543
  -0.3757994  -0.2857157   0.0942280
  -0.4517423  -0.0400262  -0.4342895
   0.1045646  -0.0130445  -0.1708178
   0.1529729  -0.4215034  -0.2266591
   0.2744176   0.2837548   0.3094729
   0.3267106   0.1172532   0.1661206
  -0.4624497  -0.1493553   0.3046083
  -0.4401581  -0.2417029   0.4777286
   0.3165173  -0.3437713   0.0589096
  -0.2455871  -0.3092189  -0.3747856
   0.3933800   0.2485231  -0.1949776
  -0.3292160   0.1280102  -0.4555874
   0.2211229  -0.4716318   0.3559929
   0.2653035  -0.3791924  -0.3890703
   0.4598294   0.1027491  -0.3475575
  -0.2658235   0.1394711  -0.1133034
   0.4075790  -0.0361705   0.3955417
   0.0521879  -0.2969881   0.4540759
   0.2123315   0.2560651  -0.0416439
  -0.2904946   0.2929763  -0.3525845
  -0.2418337  -0.1136333  -0.4659219
  -0.1742189  -0.2411080   0.0931485
   0.0358750   0.0743406  -0.3714629
  -0.2426005  -0.4930359  -0.4538703
  -0.2536535  -0.2932967  -0.1773134
  -0.0816045   0.2561476  -0.4101807
  -0.3247129  -0.4024893   0.3196932
   0.2837456  -0.1010152  -0.2986171
  -0.3935508   0.0214325   0.3682923
   0.1817244  -0.0103272   0.2250415
  -0.2872473   0.3784197   0.2549010
  -0.0221588  -0.0056949   0.1966535
   0.0325724  -0.1975432   0.2196563
   0.2976335   0.0387275  -0.0658108
  -0.4405318   0.1117196  -0.1933904
   0.4630852   0.3709486   0.3579142
  -0.4800286   0.0530459   0.1579644
  -0.2328960  -0.1013107   0.3014890
  -0.1442596  -0.4346875   0.2820598
  -0.0553768   0.3580094   0.3371830
  -0.1740271  -0.3276568   0.4458960
  -0.4994785   0.1962684   0.3593423
  -0.4250146   0.3456245  -0.1127727
  -0.0854797  -0.2565932  -0.2803768
  -0.3576255   0.2222180   0.0995020
  -0.2203770   0.0878362   0.3813501
   0.0739166  -0.4715012   0.2413311
   0.2132243  -0.2094984  -0.1287019
   0.1120618   0.3642427   0.4079982
  -0.0798780   0.1180081  -0.1696468
  -0.1899652   0.2865822  -0.1942071
   0.3451989  -0.3285114   0.2762989
  -0.3556339   0.4598163  -0.2636619
  -0.2831473   0.3164023   0.4391943
   0.0006601  -0.3228935  -0.1471264
  -0.0608871  -0.4327301   0.0772710
  -0.1269822   0.2216956   0.2146223
   0.1864938   0.3775735  -0.2235223
  -0.1511245  -0.4810639  -0.1933621
  -0.4968306  -0.4050769  -0.0744965
  -0.3982935   0.4051532   0.0825683
   0.2054004   0.1027467   0.4088321
  -0.0234615   0.3920322  -0.2780149
   0.2610378   0.1121316  -0.2441922
  -0.2924691  -0.4286546  -0.0346360
