       0.100000       0.100000      -0.100000       0.000000       0.000000       0.000000
       0.100000       0.100000       0.000000       0.060936       0.024250       0.074316
       0.100000       0.100000       0.100000       0.074494       0.075242       0.045292
       0.100000       0.100000       0.200000      -0.057824      -0.022167      -0.031285
       0.100000       0.100000       0.300000       0.049135       0.081556       0.042390
       0.100000       0.100000       0.400000       0.000000       0.000000       0.000000
       0.100000       0.150000      -0.550000       0.000000       0.000000       0.000000
       0.100000       0.150000      -0.450000       0.060535       0.011502       0.056866
       0.100000       0.150000      -0.350000       0.000000       0.000000       0.000000
       0.100000       0.150000      -0.250000      -0.014052      -0.080650      -0.010420
       0.100000       0.150000      -0.150000       0.020197       0.004347       0.093744
       0.100000       0.150000      -0.050000       0.000000       0.000000       0.000000
       0.100000       0.150000       0.050000       0.000000       0.000000       0.000000
       0.100000       0.150000       0.150000       0.000000       0.000000       0.000000
       0.100000       0.150000       0.250000      -0.042901      -0.066007      -0.042771
       0.100000       0.150000       0.350000       0.000000       0.000000       0.000000
       0.100000       0.200000      -0.500000       0.000000       0.000000       0.000000
       0.100000       0.200000      -0.400000      -0.041623      -0.050828      -0.022928
       0.100000       0.200000      -0.300000      -0.044076      -0.075301      -0.006331
       0.100000       0.200000      -0.200000       0.000000       0.000000       0.000000
       0.100000       0.200000      -0.100000       0.000000       0.000000       0.000000
       0.100000       0.200000       0.000000       0.078722       0.025874       0.045915
       0.100000       0.200000       0.100000       0.000000       0.000000       0.000000
       0.100000       0.200000       0.200000       0.000000       0.000000       0.000000
       0.100000       0.200000       0.300000      -0.017673      -0.007058      -0.083962
       0.100000       0.200000       0.400000       0.080332       0.082459       0.071514
       0.100000       0.250000      -0.550000       0.000000       0.000000       0.000000
       0.100000       0.250000      -0.450000      -0.090488      -0.033437      -0.027378
       0.100000       0.250000      -0.350000      -0.006975      -0.097900      -0.059849
       0.100000       0.250000      -0.250000       0.000000       0.000000       0.000000
       0.100000       0.250000      -0.150000       0.056731       0.097071       0.007662
       0.100000       0.250000      -0.050000       0.000000       0.000000       0.000000
       0.100000       0.250000       0.050000      -0.005795      -0.083699      -0.047342
       0.100000       0.250000       0.150000       0.000000       0.000000       0.000000
       0.100000       0.250000       0.250000      -0.060455      -0.028972      -0.033572
       0.100000       0.250000       0.350000      -0.093231      -0.055940      -0.083843
       0.100000       0.300000      -0.500000       0.031172       0.097012       0.046034
       0.100000       0.300000      -0.400000       0.000000       0.000000       0.000000
       0.100000       0.300000      -0.300000      -0.056723      -0.089319      -0.030325
       0.100000       0.300000      -0.200000       0.000000       0.000000       0.000000
       0.100000       0.300000      -0.100000      -0.015211      -0.072771      -0.002664
       0.100000       0.300000       0.000000       0.073308       0.054859       0.071111
       0.100000       0.300000       0.100000       0.000000       0.000000       0.000000
       0.100000       0.300000       0.200000       0.042223       0.068870       0.088334
       0.100000       0.300000       0.300000       0.064297       0.082460       0.072397
       0.100000       0.300000       0.400000      -0.047494      -0.092391      -0.091780
       0.100000       0.350000      -0.550000       0.000000       0.000000       0.000000
       0.100000       0.350000      -0.450000       0.000000       0.000000       0.000000
       0.100000       0.350000      -0.350000      -0.037286      -0.088128      -0.004348
       0.100000       0.350000      -0.250000       0.066148       0.087812       0.079626
       0.100000       0.350000      -0.150000       0.000000       0.000000       0.000000
       0.100000       0.350000      -0.050000       0.000000       0.000000       0.000000
       0.100000       0.350000       0.050000       0.000000       0.000000       0.000000
       0.100000       0.350000       0.150000      -0.060345      -0.015727      -0.003867
       0.100000       0.350000       0.250000       0.000000       0.000000       0.000000
       0.100000       0.350000       0.350000      -0.006860      -0.079747      -0.081198
       0.100000       0.400000      -0.500000       0.000000       0.000000       0.000000
       0.100000       0.400000      -0.400000       0.000000       0.000000       0.000000
       0.100000       0.400000      -0.300000       0.000000       0.000000       0.000000
       0.100000       0.400000      -0.200000       0.032947       0.023170       0.063253
       0.100000       0.400000      -0.100000       0.000000       0.000000       0.000000
       0.100000       0.400000       0.000000      -0.062106      -0.028441      -0.086971
       0.100000       0.400000       0.100000       0.000000       0.000000       0.000000
       0.100000       0.400000       0.200000       0.008125       0.081679       0.068883
       0.100000       0.400000       0.300000      -0.036000      -0.065588      -0.011084
       0.100000       0.400000       0.400000       0.087661       0.024674       0.010419
       0.150000      -0.550000      -0.500000       0.004988       0.053297       0.063495
       0.150000      -0.550000      -0.400000      -0.007147      -0.075324      -0.029785
       0.150000      -0.550000      -0.300000       0.078650       0.052275       0.011705
       0.150000      -0.550000      -0.200000      -0.062494      -0.027450      -0.067368
       0.150000      -0.550000      -0.100000       0.007281       0.013790       0.011079
       0.150000      -0.550000       0.000000       0.000000       0.000000       0.000000
       0.150000      -0.550000       0.100000       0.000000       0.000000       0.000000
       0.150000      -0.550000       0.200000       0.047365       0.059912       0.070202
       0.150000      -0.550000       0.300000      -0.098408      -0.083291      -0.027921
       0.150000      -0.550000       0.400000      -0.022255      -0.021175      -0.010603
       0.150000      -0.500000      -0.550000       0.042270       0.016857       0.067039
       0.150000      -0.500000      -0.450000       0.000000       0.000000       0.000000
       0.150000      -0.500000      -0.350000      -0.095756      -0.054406      -0.005372
       0.150000      -0.500000      -0.250000      -0.025098      -0.047112      -0.098878
       0.150000      -0.500000      -0.150000       0.000000       0.000000       0.000000
       0.150000      -0.500000      -0.050000       0.043585       0.070014       0.065735
       0.150000      -0.500000       0.050000       0.000000       0.000000       0.000000
       0.150000      -0.500000       0.150000       0.029827       0.012648       0.036033
       0.150000      -0.500000       0.250000      -0.044232      -0.035553      -0.004951
       0.150000      -0.500000       0.350000      -0.068176      -0.074416      -0.094969
       0.150000      -0.450000      -0.500000       0.029921       0.009702       0.004212
       0.150000      -0.450000      -0.400000       0.076615       0.058409       0.023919
       0.150000      -0.450000      -0.300000       0.000000       0.000000       0.000000
       0.150000      -0.450000      -0.200000       0.032510       0.073623       0.078698
       0.150000      -0.450000      -0.100000       0.000000       0.000000       0.000000
       0.150000      -0.450000       0.000000       0.019878       0.075306       0.011336
       0.150000      -0.450000       0.100000      -0.065914      -0.046993      -0.077291
       0.150000      -0.450000       0.200000       0.000000       0.000000       0.000000
       0.150000      -0.450000       0.300000      -0.011841      -0.005140      -0.010604
       0.150000      -0.450000       0.400000       0.000000       0.000000       0.000000
       0.150000      -0.400000      -0.550000      -0.064440      -0.029856      -0.042775
       0.150000      -0.400000      -0.450000       0.061035       0.025818       0.087526
       0.150000      -0.400000      -0.350000      -0.019983      -0.083940      -0.095030
       0.150000      -0.400000      -0.250000      -0.048344      -0.066855      -0.015174
       0.150000      -0.400000      -0.150000       0.000000       0.000000       0.000000
       0.150000      -0.400000      -0.050000       0.049623       0.083605       0.050681
       0.150000      -0.400000       0.050000       0.079676       0.007598       0.039297
       0.150000      -0.400000       0.150000      -0.052463      -0.005518      -0.098819
       0.150000      -0.400000       0.250000      -0.068949      -0.069981      -0.031290
       0.150000      -0.400000       0.350000       0.063665       0.032132       0.084917
       0.150000      -0.350000      -0.500000       0.000000       0.000000       0.000000
       0.150000      -0.350000      -0.400000       0.000000       0.000000       0.000000
       0.150000      -0.350000      -0.300000       0.026412       0.098699       0.081910
       0.150000      -0.350000      -0.200000       0.085833       0.042776       0.037159
       0.150000      -0.350000      -0.100000       0.000000       0.000000       0.000000
       0.150000      -0.350000       0.000000       0.060327       0.097376       0.020804
       0.150000      -0.350000       0.100000       0.000000       0.000000       0.000000
       0.150000      -0.350000       0.200000       0.000000       0.000000       0.000000
       0.150000      -0.350000       0.300000       0.034968       0.003690       0.017902
       0.150000      -0.350000       0.400000       0.000000       0.000000       0.000000
       0.150000      -0.300000      -0.550000       0.000000       0.000000       0.000000
       0.150000      -0.300000      -0.450000       0.000000       0.000000       0.000000
       0.150000      -0.300000      -0.350000       0.000000       0.000000       0.000000
       0.150000      -0.300000      -0.250000      -0.053827      -0.009410      -0.003630
       0.150000      -0.300000      -0.150000       0.059041       0.074345       0.022645
       0.150000      -0.300000      -0.050000       0.000000       0.000000       0.000000
       0.150000      -0.300000       0.050000       0.011314       0.063642       0.008776
       0.150000      -0.300000       0.150000       0.000000       0.000000       0.000000
       0.150000      -0.300000       0.250000       0.017282       0.004712       0.070281
       0.150000      -0.300000       0.350000       0.000000       0.000000       0.000000
       0.150000      -0.250000      -0.500000       0.090261       0.099782       0.096506
       0.150000      -0.250000      -0.400000       0.040577       0.074406       0.084862
       0.150000      -0.250000      -0.300000       0.000000       0.000000       0.000000
       0.150000      -0.250000      -0.200000       0.046008       0.063282       0.037833
       0.150000      -0.250000      -0.100000       0.060250       0.018182       0.030794
       0.150000      -0.250000       0.000000       0.056723       0.089319       0.030325
       0.150000      -0.250000       0.100000       0.000000       0.000000       0.000000
       0.150000      -0.250000       0.200000       0.027597       0.018002       0.045323
       0.150000      -0.250000       0.300000       0.035281       0.024977       0.022973
       0.150000      -0.250000       0.400000       0.000000       0.000000       0.000000
       0.150000      -0.200000      -0.550000       0.053144       0.005795       0.084582
       0.150000      -0.200000      -0.450000       0.094943       0.017822       0.059851
       0.150000      -0.200000      -0.350000      -0.037035      -0.029743      -0.026782
       0.150000      -0.200000      -0.250000      -0.056563      -0.024553      -0.086673
       0.150000      -0.200000      -0.150000      -0.099742      -0.055290      -0.014575
       0.150000      -0.200000      -0.050000       0.029690       0.072122       0.034182
       0.150000      -0.200000       0.050000       0.000000       0.000000       0.000000
       0.150000      -0.200000       0.150000       0.000000       0.000000       0.000000
       0.150000      -0.200000       0.250000      -0.004057      -0.095910      -0.012891
       0.150000      -0.200000       0.350000       0.000000       0.000000       0.000000
       0.150000      -0.150000      -0.500000      -0.053909      -0.093215      -0.039650
       0.150000      -0.150000      -0.400000       0.000000       0.000000       0.000000
       0.150000      -0.150000      -0.300000      -0.095713      -0.010247      -0.064846
       0.150000      -0.150000      -0.200000       0.000000       0.000000       0.000000
       0.150000      -0.150000      -0.100000       0.068246       0.046445       0.013516
       0.150000      -0.150000       0.000000      -0.070295      -0.054246      -0.040312
       0.150000      -0.150000       0.100000       0.000000       0.000000       0.000000
       0.150000      -0.150000       0.200000       0.000000       0.000000       0.000000
       0.150000      -0.150000       0.300000      -0.046151      -0.010972      -0.011148
       0.150000      -0.150000       0.400000       0.075140       0.040192       0.078635
       0.150000      -0.100000      -0.550000      -0.098555      -0.033729      -0.028647
       0.150000      -0.100000      -0.450000       0.035392       0.039891       0.069320
       0.150000      -0.100000      -0.350000      -0.066168      -0.008224      -0.083247
       0.150000      -0.100000      -0.250000       0.093097       0.018063       0.008422
       0.150000      -0.100000      -0.150000      -0.010917      -0.054623      -0.028526
       0.150000      -0.100000      -0.050000      -0.025146      -0.096571      -0.092267
       0.150000      -0.100000       0.050000      -0.052722      -0.071655      -0.053722
       0.150000      -0.100000       0.150000      -0.072250      -0.066465      -0.013614
       0.150000      -0.100000       0.250000       0.000000       0.000000       0.000000
       0.150000      -0.100000       0.350000       0.000000       0.000000       0.000000
       0.150000      -0.050000      -0.500000      -0.052915      -0.071159      -0.043921
       0.150000      -0.050000      -0.400000      -0.094622      -0.087212      -0.061780
       0.150000      -0.050000      -0.300000       0.099496       0.002009       0.087914
       0.150000      -0.050000      -0.200000       0.052359       0.098160       0.027851
       0.150000      -0.050000      -0.100000       0.055832       0.072363       0.083047
       0.150000      -0.050000       0.000000       0.019169       0.045785       0.033846
       0.150000      -0.050000       0.100000      -0.017779      -0.015790      -0.068635
       0.150000      -0.050000       0.200000      -0.038485      -0.022347      -0.016561
       0.150000      -0.050000       0.300000      -0.058308      -0.020095      -0.098461
       0.150000      -0.050000       0.400000      -0.089907      -0.035315      -0.060698
       0.150000       0.000000      -0.550000       0.025084       0.032195       0.050078
       0.150000       0.000000      -0.450000       0.046326       0.090163       0.098705
       0.150000       0.000000      -0.350000       0.032031       0.080602       0.060470
       0.150000       0.000000      -0.250000       0.013283       0.089501       0.018152
       0.150000       0.000000      -0.150000      -0.034163      -0.074367      -0.044823
       0.150000       0.000000      -0.050000      -0.054770      -0.079946      -0.085413
       0.150000       0.000000       0.050000       0.049451       0.006279       0.081724
       0.150000       0.000000       0.150000      -0.094711      -0.078377      -0.071221
       0.150000       0.000000       0.250000       0.000000       0.000000       0.000000
       0.150000       0.000000       0.350000      -0.056731      -0.097071      -0.007662
       0.150000       0.050000      -0.500000       0.052577       0.022394       0.064744
       0.150000       0.050000      -0.400000       0.000000       0.000000       0.000000
       0.150000       0.050000      -0.300000       0.000000       0.000000       0.000000
       0.150000       0.050000      -0.200000       0.000000       0.000000       0.000000
       0.150000       0.050000      -0.100000       0.000000       0.000000       0.000000
       0.150000       0.050000       0.000000       0.000000       0.000000       0.000000
       0.150000       0.050000       0.100000       0.056386       0.042418       0.069748
       0.150000       0.050000       0.200000      -0.054076      -0.065733      -0.060639
       0.150000       0.050000       0.300000       0.000000       0.000000       0.000000
       0.150000       0.050000       0.400000       0.020943       0.071944       0.051065
       0.150000       0.100000      -0.550000      -0.041219      -0.035038      -0.075131
       0.150000       0.100000      -0.450000      -0.061434      -0.036701      -0.086375
       0.150000       0.100000      -0.350000       0.091080       0.042058       0.098805
       0.150000       0.100000      -0.250000       0.000000       0.000000       0.000000
       0.150000       0.100000      -0.150000       0.000000       0.000000       0.000000
       0.150000       0.100000      -0.050000      -0.056525      -0.085300      -0.095095
       0.150000       0.100000       0.050000       0.000000       0.000000       0.000000
       0.150000       0.100000       0.150000      -0.006180      -0.080647      -0.007181
       0.150000       0.100000       0.250000      -0.029045      -0.008742      -0.016502
       0.150000       0.100000       0.350000       0.021026       0.056731       0.096875
       0.150000       0.150000      -0.500000       0.000000       0.000000       0.000000
       0.150000       0.150000      -0.400000      -0.029534      -0.011183      -0.028709
       0.150000       0.150000      -0.300000       0.085583       0.086256       0.078192
       0.150000       0.150000      -0.200000       0.000000       0.000000       0.000000
       0.150000       0.150000      -0.100000      -0.094007      -0.054351      -0.048553
       0.150000       0.150000       0.000000       0.057972       0.074470       0.050611
       0.150000       0.150000       0.100000      -0.053083      -0.043677      -0.064909
       0.150000       0.150000       0.200000       0.061151       0.045246       0.078904
       0.150000       0.150000       0.300000       0.094824       0.095156       0.036168
       0.150000       0.150000       0.400000       0.083761       0.011030       0.071500
       0.150000       0.200000      -0.550000       0.099961       0.080604       0.062237
       0.150000       0.200000      -0.450000      -0.083698      -0.046655      -0.029311
       0.150000       0.200000      -0.350000      -0.087918      -0.088750      -0.044765
       0.150000       0.200000      -0.250000       0.000000       0.000000       0.000000
       0.150000       0.200000      -0.150000       0.009255       0.044164       0.065486
       0.150000       0.200000      -0.050000      -0.075649      -0.063928      -0.003274
       0.150000       0.200000       0.050000       0.047970       0.082468       0.080640
       0.150000       0.200000       0.150000       0.000000       0.000000       0.000000
       0.150000       0.200000       0.250000       0.000000       0.000000       0.000000
       0.150000       0.200000       0.350000       0.000000       0.000000       0.000000
       0.150000       0.250000      -0.500000       0.000000       0.000000       0.000000
       0.150000       0.250000      -0.400000      -0.024517      -0.048990      -0.032198
       0.150000       0.250000      -0.300000      -0.047578      -0.079043      -0.056190
       0.150000       0.250000      -0.200000       0.000000       0.000000       0.000000
       0.150000       0.250000      -0.100000       0.001653       0.021975       0.033645
       0.150000       0.250000       0.000000       0.000000       0.000000       0.000000
       0.150000       0.250000       0.100000       0.000000       0.000000       0.000000
       0.150000       0.250000       0.200000       0.000000       0.000000       0.000000
       0.150000       0.250000       0.300000       0.000000       0.000000       0.000000
       0.150000       0.250000       0.400000       0.000000       0.000000       0.000000
       0.150000       0.300000      -0.550000      -0.070438      -0.002231      -0.016564
       0.150000       0.300000      -0.450000       0.077610       0.081446       0.029439
       0.150000       0.300000      -0.350000       0.000000       0.000000       0.000000
       0.150000       0.300000      -0.250000       0.000000       0.000000       0.000000
       0.150000       0.300000      -0.150000       0.000000       0.000000       0.000000
       0.150000       0.300000      -0.050000       0.092777       0.089023       0.026014
       0.150000       0.300000       0.050000       0.000000       0.000000       0.000000
       0.150000       0.300000       0.150000       0.000000       0.000000       0.000000
       0.150000       0.300000       0.250000      -0.060522      -0.098450      -0.026666
       0.150000       0.300000       0.350000      -0.003112      -0.023313      -0.010551
       0.150000       0.350000      -0.500000       0.000000       0.000000       0.000000
       0.150000       0.350000      -0.400000       0.000000       0.000000       0.000000
       0.150000       0.350000      -0.300000       0.000000       0.000000       0.000000
       0.150000       0.350000      -0.200000      -0.090450      -0.094576      -0.039715
       0.150000       0.350000      -0.100000       0.000000       0.000000       0.000000
       0.150000       0.350000       0.000000       0.007544       0.083852       0.005140
       0.150000       0.350000       0.100000      -0.081518      -0.003038      -0.047653
       0.150000       0.350000       0.200000      -0.009584      -0.083017      -0.045789
       0.150000       0.350000       0.300000       0.065101       0.010311       0.030791
       0.150000       0.350000       0.400000      -0.047365      -0.059912      -0.070202
       0.150000       0.400000      -0.550000       0.000000       0.000000       0.000000
       0.150000       0.400000      -0.450000       0.000000       0.000000       0.000000
       0.150000       0.400000      -0.350000       0.059859       0.015542       0.014176
       0.150000       0.400000      -0.250000       0.020258       0.066955       0.018312
       0.150000       0.400000      -0.150000      -0.091621      -0.098963      -0.054328
       0.150000       0.400000      -0.050000       0.083005       0.033522       0.015305
       0.150000       0.400000       0.050000       0.079921       0.059800       0.055190
       0.150000       0.400000       0.150000       0.000000       0.000000       0.000000
       0.150000       0.400000       0.250000       0.099742       0.055290       0.014575
       0.150000       0.400000       0.350000      -0.014091      -0.020689      -0.009830
       0.200000      -0.550000      -0.550000       0.087110       0.056974       0.047213
       0.200000      -0.550000      -0.450000       0.000000       0.000000       0.000000
       0.200000      -0.550000      -0.350000      -0.078466      -0.062878      -0.022338
       0.200000      -0.550000      -0.250000       0.039772       0.046751       0.028425
       0.200000      -0.550000      -0.150000       0.000000       0.000000       0.000000
       0.200000      -0.550000      -0.050000      -0.053734      -0.013730      -0.049157
       0.200000      -0.550000       0.050000       0.000000       0.000000       0.000000
       0.200000      -0.550000       0.150000       0.032424       0.085597       0.000583
       0.200000      -0.550000       0.250000      -0.044017      -0.014361      -0.098405
       0.200000      -0.550000       0.350000       0.000000       0.000000       0.000000
       0.200000      -0.500000      -0.500000       0.080339       0.090408       0.050809
       0.200000      -0.500000      -0.400000       0.098497       0.074653       0.039321
       0.200000      -0.500000      -0.300000       0.011760       0.022218       0.083394
       0.200000      -0.500000      -0.200000       0.050918       0.015664       0.038903
       0.200000      -0.500000      -0.100000       0.092423       0.024263       0.087269
       0.200000      -0.500000       0.000000       0.000000       0.000000       0.000000
       0.200000      -0.500000       0.100000       0.000000       0.000000       0.000000
       0.200000      -0.500000       0.200000       0.000000       0.000000       0.000000
       0.200000      -0.500000       0.300000       0.000000       0.000000       0.000000
       0.200000      -0.500000       0.400000      -0.027033      -0.037643      -0.055832
       0.200000      -0.450000      -0.550000       0.000000       0.000000       0.000000
       0.200000      -0.450000      -0.450000       0.000000       0.000000       0.000000
       0.200000      -0.450000      -0.350000       0.011990       0.058719       0.042656
       0.200000      -0.450000      -0.250000       0.048895       0.034064       0.073486
       0.200000      -0.450000      -0.150000       0.000000       0.000000       0.000000
       0.200000      -0.450000      -0.050000       0.000000       0.000000       0.000000
       0.200000      -0.450000       0.050000      -0.003476      -0.097789      -0.046211
       0.200000      -0.450000       0.150000       0.000000       0.000000       0.000000
       0.200000      -0.450000       0.250000       0.000000       0.000000       0.000000
       0.200000      -0.450000       0.350000      -0.080707      -0.068220      -0.019753
       0.200000      -0.400000      -0.500000       0.000000       0.000000       0.000000
       0.200000      -0.400000      -0.400000       0.000000       0.000000       0.000000
       0.200000      -0.400000      -0.300000       0.065914       0.046993       0.077291
       0.200000      -0.400000      -0.200000      -0.072167      -0.080599      -0.057035
       0.200000      -0.400000      -0.100000       0.017356       0.080667       0.027986
       0.200000      -0.400000       0.000000       0.007956       0.007787       0.034190
       0.200000      -0.400000       0.100000      -0.060290      -0.059693      -0.044889
       0.200000      -0.400000       0.200000       0.000000       0.000000       0.000000
       0.200000      -0.400000       0.300000       0.052103       0.034967       0.002316
       0.200000      -0.400000       0.400000      -0.043998      -0.094734      -0.002616
       0.200000      -0.350000      -0.550000       0.050239       0.017348       0.072719
       0.200000      -0.350000      -0.450000       0.032471       0.033584       0.079288
       0.200000      -0.350000      -0.350000       0.000000       0.000000       0.000000
       0.200000      -0.350000      -0.250000      -0.052533      -0.077449      -0.016387
       0.200000      -0.350000      -0.150000       0.000000       0.000000       0.000000
       0.200000      -0.350000      -0.050000       0.000000       0.000000       0.000000
       0.200000      -0.350000       0.050000       0.067607       0.088365       0.048700
       0.200000      -0.350000       0.150000      -0.036044      -0.010533      -0.059441
       0.200000      -0.350000       0.250000      -0.063816      -0.087575      -0.035569
       0.200000      -0.350000       0.350000       0.000000       0.000000       0.000000
       0.200000      -0.300000      -0.500000       0.000000       0.000000       0.000000
       0.200000      -0.300000      -0.400000       0.000000       0.000000       0.000000
       0.200000      -0.300000      -0.300000       0.092658       0.066357       0.002331
       0.200000      -0.300000      -0.200000       0.005237       0.010013       0.024420
       0.200000      -0.300000      -0.100000      -0.011800      -0.063826      -0.098468
       0.200000      -0.300000       0.000000      -0.040553      -0.050658      -0.047956
       0.200000      -0.300000       0.100000      -0.064302      -0.087563      -0.023302
       0.200000      -0.300000       0.200000       0.086142       0.060825       0.009925
       0.200000      -0.300000       0.300000       0.089468       0.083314       0.051670
       0.200000      -0.300000       0.400000       0.042331       0.079466       0.091607
       0.200000      -0.250000      -0.550000       0.060488       0.063711       0.080119
       0.200000      -0.250000      -0.450000       0.048151       0.068823       0.039660
       0.200000      -0.250000      -0.350000       0.020446       0.059983       0.043900
       0.200000      -0.250000      -0.250000       0.090783       0.036472       0.050365
       0.200000      -0.250000      -0.150000       0.000000       0.000000       0.000000
       0.200000      -0.250000      -0.050000       0.000000       0.000000       0.000000
       0.200000      -0.250000       0.050000       0.000000       0.000000       0.000000
       0.200000      -0.250000       0.150000       0.000000       0.000000       0.000000
       0.200000      -0.250000       0.250000       0.085929       0.042184       0.028832
       0.200000      -0.250000       0.350000       0.000000       0.000000       0.000000
       0.200000      -0.200000      -0.500000       0.000000       0.000000       0.000000
       0.200000      -0.200000      -0.400000       0.000000       0.000000       0.000000
       0.200000      -0.200000      -0.300000       0.097034       0.068703       0.016405
       0.200000      -0.200000      -0.200000      -0.000798      -0.041918      -0.054452
       0.200000      -0.200000      -0.100000      -0.036518      -0.098254      -0.024806
       0.200000      -0.200000       0.000000       0.000000       0.000000       0.000000
       0.200000      -0.200000       0.100000       0.099475       0.080910       0.077440
       0.200000      -0.200000       0.200000      -0.007076      -0.002117      -0.099491
       0.200000      -0.200000       0.300000      -0.031217      -0.042938      -0.004181
       0.200000      -0.200000       0.400000       0.012001       0.069906       0.054256
       0.200000      -0.150000      -0.550000       0.000000       0.000000       0.000000
       0.200000      -0.150000      -0.450000       0.055316       0.041463       0.086946
       0.200000      -0.150000      -0.350000       0.000000       0.000000       0.000000
       0.200000      -0.150000      -0.250000       0.041705       0.035811       0.070696
       0.200000      -0.150000      -0.150000       0.061968       0.086442       0.070435
       0.200000      -0.150000      -0.050000      -0.033174      -0.057610      -0.001957
       0.200000      -0.150000       0.050000      -0.044950      -0.075084      -0.082293
       0.200000      -0.150000       0.150000       0.000000       0.000000       0.000000
       0.200000      -0.150000       0.250000      -0.088423      -0.008757      -0.032203
       0.200000      -0.150000       0.350000      -0.024929      -0.072925      -0.061247
       0.200000      -0.100000      -0.500000       0.000000       0.000000       0.000000
       0.200000      -0.100000      -0.400000       0.056525       0.085300       0.095095
       0.200000      -0.100000      -0.300000      -0.095094      -0.072872      -0.006587
       0.200000      -0.100000      -0.200000      -0.021982      -0.041104      -0.016689
       0.200000      -0.100000      -0.100000       0.088777       0.072733       0.063117
       0.200000      -0.100000       0.000000       0.000000       0.000000       0.000000
       0.200000      -0.100000       0.100000       0.000000       0.000000       0.000000
       0.200000      -0.100000       0.200000       0.043250       0.025469       0.028653
       0.200000      -0.100000       0.300000      -0.061920      -0.037082      -0.078025
       0.200000      -0.100000       0.400000       0.000000       0.000000       0.000000
       0.200000      -0.050000      -0.550000       0.000000       0.000000       0.000000
       0.200000      -0.050000      -0.450000       0.000000       0.000000       0.000000
       0.200000      -0.050000      -0.350000      -0.061035      -0.025818      -0.087526
       0.200000      -0.050000      -0.250000       0.002860       0.063653       0.020258
       0.200000      -0.050000      -0.150000       0.097817       0.075259       0.062368
       0.200000      -0.050000      -0.050000       0.000000       0.000000       0.000000
       0.200000      -0.050000       0.050000       0.000000       0.000000       0.000000
       0.200000      -0.050000       0.150000       0.000000       0.000000       0.000000
       0.200000      -0.050000       0.250000      -0.020207      -0.013669      -0.086744
       0.200000      -0.050000       0.350000      -0.028842      -0.099817      -0.032325
       0.200000       0.000000      -0.500000      -0.073689      -0.047195      -0.084940
       0.200000       0.000000      -0.400000      -0.094395      -0.053753      -0.032866
       0.200000       0.000000      -0.300000       0.069121       0.046817       0.095352
       0.200000       0.000000      -0.200000      -0.032471      -0.033584      -0.079288
       0.200000       0.000000      -0.100000       0.043910       0.004844       0.005901
       0.200000       0.000000       0.000000      -0.084678      -0.054384      -0.082114
       0.200000       0.000000       0.100000       0.029320       0.091856       0.040763
       0.200000       0.000000       0.200000       0.083015       0.043630       0.016137
       0.200000       0.000000       0.300000      -0.067208      -0.077678      -0.051808
       0.200000       0.000000       0.400000      -0.093017      -0.035141      -0.081213
       0.200000       0.050000      -0.550000       0.000000       0.000000       0.000000
       0.200000       0.050000      -0.450000       0.043214       0.088669       0.061548
       0.200000       0.050000      -0.350000       0.000000       0.000000       0.000000
       0.200000       0.050000      -0.250000       0.000000       0.000000       0.000000
       0.200000       0.050000      -0.150000       0.000000       0.000000       0.000000
       0.200000       0.050000      -0.050000      -0.045123      -0.052508      -0.052229
       0.200000       0.050000       0.050000       0.000000       0.000000       0.000000
       0.200000       0.050000       0.150000       0.000000       0.000000       0.000000
       0.200000       0.050000       0.250000      -0.019410      -0.093571      -0.005687
       0.200000       0.050000       0.350000      -0.058663      -0.085150      -0.040143
       0.200000       0.100000      -0.500000       0.000000       0.000000       0.000000
       0.200000       0.100000      -0.400000      -0.005865      -0.056023      -0.068826
       0.200000       0.100000      -0.300000      -0.023921      -0.036149      -0.018676
       0.200000       0.100000      -0.200000      -0.064058      -0.036538      -0.019157
       0.200000       0.100000      -0.100000      -0.074362      -0.039328      -0.089451
       0.200000       0.100000       0.000000      -0.004881      -0.043780      -0.070991
       0.200000       0.100000       0.100000       0.000000       0.000000       0.000000
       0.200000       0.100000       0.200000       0.000000       0.000000       0.000000
       0.200000       0.100000       0.300000       0.014064       0.092819       0.031809
       0.200000       0.100000       0.400000       0.075443       0.051568       0.084833
       0.200000       0.150000      -0.550000      -0.047665      -0.068148      -0.045074
       0.200000       0.150000      -0.450000       0.017779       0.015790       0.068635
       0.200000       0.150000      -0.350000       0.034126       0.037076       0.072824
       0.200000       0.150000      -0.250000       0.044452       0.062633       0.070234
       0.200000       0.150000      -0.150000      -0.037947      -0.068779      -0.094322
       0.200000       0.150000      -0.050000       0.000000       0.000000       0.000000
       0.200000       0.150000       0.050000       0.000000       0.000000       0.000000
       0.200000       0.150000       0.150000       0.058789       0.014587       0.031373
       0.200000       0.150000       0.250000      -0.052959      -0.016104      -0.092278
       0.200000       0.150000       0.350000       0.038472       0.009296       0.086361
       0.200000       0.200000      -0.500000       0.000000       0.000000       0.000000
       0.200000       0.200000      -0.400000      -0.016648      -0.051441      -0.053433
       0.200000       0.200000      -0.300000      -0.052761      -0.011693      -0.053132
       0.200000       0.200000      -0.200000      -0.059041      -0.074345      -0.022645
       0.200000       0.200000      -0.100000       0.016829       0.038580       0.020284
       0.200000       0.200000       0.000000       0.000000       0.000000       0.000000
       0.200000       0.200000       0.100000       0.000000       0.000000       0.000000
       0.200000       0.200000       0.200000       0.000000       0.000000       0.000000
       0.200000       0.200000       0.300000       0.049913       0.081635       0.023742
       0.200000       0.200000       0.400000       0.000000       0.000000       0.000000
       0.200000       0.250000      -0.550000       0.062586       0.022345       0.014009
       0.200000       0.250000      -0.450000       0.051670       0.089934       0.062793
       0.200000       0.250000      -0.350000      -0.090635      -0.084660      -0.035935
       0.200000       0.250000      -0.250000      -0.027828      -0.055680      -0.016332
       0.200000       0.250000      -0.150000      -0.059328      -0.069922      -0.071233
       0.200000       0.250000      -0.050000       0.000000       0.000000       0.000000
       0.200000       0.250000       0.050000       0.011427       0.079832       0.067849
       0.200000       0.250000       0.150000       0.000000       0.000000       0.000000
       0.200000       0.250000       0.250000      -0.053144      -0.005795      -0.084582
       0.200000       0.250000       0.350000       0.008290       0.051449       0.062461
       0.200000       0.300000      -0.500000       0.000000       0.000000       0.000000
       0.200000       0.300000      -0.400000       0.038048       0.072015       0.024174
       0.200000       0.300000      -0.300000      -0.067861      -0.050184      -0.060529
       0.200000       0.300000      -0.200000      -0.086310      -0.034226      -0.039724
       0.200000       0.300000      -0.100000       0.020078       0.081876       0.072019
       0.200000       0.300000       0.000000       0.000000       0.000000       0.000000
       0.200000       0.300000       0.100000       0.000000       0.000000       0.000000
       0.200000       0.300000       0.200000       0.071078       0.060409       0.082359
       0.200000       0.300000       0.300000       0.000000       0.000000       0.000000
       0.200000       0.300000       0.400000       0.000000       0.000000       0.000000
       0.200000       0.350000      -0.550000      -0.059221      -0.059130      -0.066002
       0.200000       0.350000      -0.450000       0.057709       0.003524       0.047739
       0.200000       0.350000      -0.350000      -0.007306      -0.038814      -0.060710
       0.200000       0.350000      -0.250000      -0.046853      -0.033329      -0.017175
       0.200000       0.350000      -0.150000       0.000000       0.000000       0.000000
       0.200000       0.350000      -0.050000       0.000000       0.000000       0.000000
       0.200000       0.350000       0.050000       0.000000       0.000000       0.000000
       0.200000       0.350000       0.150000      -0.054015      -0.002339      -0.028239
       0.200000       0.350000       0.250000      -0.083749      -0.098960      -0.051089
       0.200000       0.350000       0.350000      -0.092777      -0.089023      -0.026014
       0.200000       0.400000      -0.500000       0.068023       0.016814       0.022781
       0.200000       0.400000      -0.400000       0.000000       0.000000       0.000000
       0.200000       0.400000      -0.300000       0.000000       0.000000       0.000000
       0.200000       0.400000      -0.200000      -0.010439      -0.062780      -0.022046
       0.200000       0.400000      -0.100000       0.000000       0.000000       0.000000
       0.200000       0.400000       0.000000       0.000000       0.000000       0.000000
       0.200000       0.400000       0.100000       0.000000       0.000000       0.000000
       0.200000       0.400000       0.200000       0.075990       0.014950       0.004966
       0.200000       0.400000       0.300000       0.039622       0.091799       0.082668
       0.200000       0.400000       0.400000       0.000000       0.000000       0.000000
       0.250000      -0.550000      -0.500000       0.074958       0.052954       0.010805
       0.250000      -0.550000      -0.400000      -0.001700      -0.070747      -0.020182
       0.250000      -0.550000      -0.300000      -0.036734      -0.020231      -0.039184
       0.250000      -0.550000      -0.200000       0.040642       0.041529       0.054461
       0.250000      -0.550000      -0.100000       0.088168       0.045859       0.009605
       0.250000      -0.550000       0.000000       0.000000       0.000000       0.000000
       0.250000      -0.550000       0.100000       0.000000       0.000000       0.000000
       0.250000      -0.550000       0.200000      -0.071078      -0.060409      -0.082359
       0.250000      -0.550000       0.300000       0.024725       0.063117       0.068259
       0.250000      -0.550000       0.400000       0.010872       0.008697       0.070379
       0.250000      -0.500000      -0.550000      -0.026719      -0.015472      -0.041950
       0.250000      -0.500000      -0.450000       0.000000       0.000000       0.000000
       0.250000      -0.500000      -0.350000      -0.090702      -0.053745      -0.025113
       0.250000      -0.500000      -0.250000      -0.017002      -0.016103      -0.091199
       0.250000      -0.500000      -0.150000       0.000000       0.000000       0.000000
       0.250000      -0.500000      -0.050000       0.000000       0.000000       0.000000
       0.250000      -0.500000       0.050000      -0.003555      -0.079534      -0.061674
       0.250000      -0.500000       0.150000       0.052955       0.011884       0.050183
       0.250000      -0.500000       0.250000       0.096713       0.038583       0.023228
       0.250000      -0.500000       0.350000       0.020744       0.066845       0.005067
       0.250000      -0.450000      -0.500000       0.029260       0.029443       0.018153
       0.250000      -0.450000      -0.400000      -0.020039      -0.041544      -0.069672
       0.250000      -0.450000      -0.300000       0.000000       0.000000       0.000000
       0.250000      -0.450000      -0.200000      -0.069498      -0.034933      -0.067086
       0.250000      -0.450000      -0.100000       0.064985       0.091079       0.041371
       0.250000      -0.450000       0.000000       0.000000       0.000000       0.000000
       0.250000      -0.450000       0.100000       0.000000       0.000000       0.000000
       0.250000      -0.450000       0.200000       0.000000       0.000000       0.000000
       0.250000      -0.450000       0.300000       0.015248       0.011043       0.084453
       0.250000      -0.450000       0.400000       0.000000       0.000000       0.000000
       0.250000      -0.400000      -0.550000      -0.039465      -0.030469      -0.073280
       0.250000      -0.400000      -0.450000       0.000000       0.000000       0.000000
       0.250000      -0.400000      -0.350000       0.000000       0.000000       0.000000
       0.250000      -0.400000      -0.250000       0.000000       0.000000       0.000000
       0.250000      -0.400000      -0.150000       0.064920       0.024152       0.073729
       0.250000      -0.400000      -0.050000       0.000000       0.000000       0.000000
       0.250000      -0.400000       0.050000       0.041667       0.096852       0.082054
       0.250000      -0.400000       0.150000       0.025857       0.027760       0.086399
       0.250000      -0.400000       0.250000       0.000000       0.000000       0.000000
       0.250000      -0.400000       0.350000       0.000000       0.000000       0.000000
       0.250000      -0.350000      -0.500000       0.000000       0.000000       0.000000
       0.250000      -0.350000      -0.400000       0.098635       0.016456       0.053899
       0.250000      -0.350000      -0.300000      -0.057612      -0.004214      -0.057045
       0.250000      -0.350000      -0.200000      -0.079594      -0.023498      -0.000340
       0.250000      -0.350000      -0.100000       0.000000       0.000000       0.000000
       0.250000      -0.350000       0.000000       0.072687       0.015915       0.097190
       0.250000      -0.350000       0.100000      -0.073213      -0.057413      -0.099017
       0.250000      -0.350000       0.200000       0.055308       0.032631       0.098840
       0.250000      -0.350000       0.300000      -0.002064      -0.045223      -0.055842
       0.250000      -0.350000       0.400000       0.000000       0.000000       0.000000
       0.250000      -0.300000      -0.550000      -0.054369      -0.067002      -0.066005
       0.250000      -0.300000      -0.450000       0.000000       0.000000       0.000000
       0.250000      -0.300000      -0.350000       0.084865       0.046823       0.001829
       0.250000      -0.300000      -0.250000       0.047906       0.016817       0.025725
       0.250000      -0.300000      -0.150000       0.000000       0.000000       0.000000
       0.250000      -0.300000      -0.050000       0.009969       0.079475       0.000733
       0.250000      -0.300000       0.050000       0.058769       0.094568       0.031668
       0.250000      -0.300000       0.150000      -0.041705      -0.035811      -0.070696
       0.250000      -0.300000       0.250000      -0.061234      -0.030621      -0.030587
       0.250000      -0.300000       0.350000       0.024158       0.079716       0.048421
       0.250000      -0.250000      -0.500000      -0.020997      -0.026800      -0.098296
